-752.000000 -1152.000000 -80.000000
-752.937043 -1153.249390 -78.750610
-753.874085 -1154.498780 -77.501220
-754.811128 -1155.748170 -76.251830
-755.748170 -1156.997560 -75.002440
-756.685213 -1158.246950 -73.753050
-757.622255 -1159.496341 -72.503659
-758.559298 -1160.745731 -71.254269
-759.496341 -1161.995121 -70.004879
-760.433383 -1163.244511 -68.755489
-761.370426 -1164.493901 -67.506099
-762.307468 -1165.743291 -66.256709
-763.244511 -1166.992681 -65.007319
-764.181553 -1168.242071 -63.757929
-765.118596 -1169.491461 -62.508539
-766.055639 -1170.740851 -61.259149
-766.992681 -1171.990242 -60.009758
-767.929724 -1173.239632 -58.760368
-768.866766 -1174.489022 -57.510978
-769.803809 -1175.738412 -56.261588
-770.740851 -1176.987802 -55.012198
-771.677894 -1178.237192 -53.762808
-772.614937 -1179.486582 -52.513418
-773.551979 -1180.735972 -51.264028
-774.489022 -1181.985362 -50.014638
-776.000000 -1184.000000 -48.000000
-776.000000 -1185.109400 -46.335899
-776.000000 -1186.218801 -44.671799
-776.000000 -1187.328201 -43.007698
-776.000000 -1188.437602 -41.343598
-776.000000 -1189.547002 -39.679497
-776.000000 -1190.656402 -38.015396
-776.000000 -1191.765803 -36.351296
-776.000000 -1192.875203 -34.687195
-776.000000 -1193.984604 -33.023095
-776.000000 -1195.094004 -31.358994
-776.000000 -1196.203404 -29.694894
-776.000000 -1197.312805 -28.030793
-776.000000 -1198.422205 -26.366692
-776.000000 -1199.531605 -24.702592
-776.000000 -1200.641006 -23.038491
-776.000000 -1201.750406 -21.374391
-776.000000 -1202.859807 -19.710290
-776.000000 -1203.969207 -18.046189
-776.000000 -1205.078607 -16.382089
-776.000000 -1206.188008 -14.717988
-776.000000 -1207.297408 -13.053888
-776.000000 -1208.406809 -11.389787
-776.000000 -1209.516209 -9.725686
-776.000000 -1210.625609 -8.061586
-776.000000 -1211.735010 -6.397485
-776.000000 -1212.844410 -4.733385
-776.000000 -1213.953811 -3.069284
-776.000000 -1216.000000 0.000000
-777.270001 -1217.524002 0.254000
-778.540003 -1219.048003 0.508001
-779.810004 -1220.572005 0.762001
-781.080005 -1222.096006 1.016001
-782.350006 -1223.620008 1.270001
-783.620008 -1225.144009 1.524002
-784.890009 -1226.668011 1.778002
-786.160010 -1228.192012 2.032002
-787.430011 -1229.716014 2.286002
-788.700013 -1231.240015 2.540003
-789.970014 -1232.764017 2.794003
-791.240015 -1234.288018 3.048003
-792.510017 -1235.812020 3.302003
-793.780018 -1237.336021 3.556004
-795.050019 -1238.860023 3.810004
-796.320020 -1240.384024 4.064004
-797.590022 -1241.908026 4.318004
-798.860023 -1243.432027 4.572005
-800.130024 -1244.956029 4.826005
-801.400025 -1246.480030 5.080005
-802.670027 -1248.004032 5.334005
-803.940028 -1249.528034 5.588006
-805.210029 -1251.052035 5.842006
-806.480030 -1252.576037 6.096006
-807.750032 -1254.100038 6.350006
-809.020033 -1255.624040 6.604007
-810.290034 -1257.148041 6.858007
-811.560036 -1258.672043 7.112007
-812.830037 -1260.196044 7.366007
-814.100038 -1261.720046 7.620008
-816.000000 -1264.000000 8.000000
-816.199007 -1265.990074 8.000000
-816.398015 -1267.980149 8.000000
-816.597022 -1269.970223 8.000000
-816.796030 -1271.960298 8.000000
-816.995037 -1273.950372 8.000000
-817.194045 -1275.940446 8.000000
-817.393052 -1277.930521 8.000000
-817.592060 -1279.920595 8.000000
-817.791067 -1281.910669 8.000000
-817.990074 -1283.900744 8.000000
-818.189082 -1285.890818 8.000000
-818.388089 -1287.880893 8.000000
-818.587097 -1289.870967 8.000000
-818.786104 -1291.861041 8.000000
-818.985112 -1293.851116 8.000000
-819.184119 -1295.841190 8.000000
-819.383126 -1297.831264 8.000000
-819.582134 -1299.821339 8.000000
-819.781141 -1301.811413 8.000000
-819.980149 -1303.801488 8.000000
-820.179156 -1305.791562 8.000000
-820.378164 -1307.781636 8.000000
-820.577171 -1309.771711 8.000000
-820.776179 -1311.761785 8.000000
-820.975186 -1313.751860 8.000000
-821.174193 -1315.741934 8.000000
-821.373201 -1317.732008 8.000000
-821.572208 -1319.722083 8.000000
-821.771216 -1321.712157 8.000000
-821.970223 -1323.702231 8.000000
-822.169231 -1325.692306 8.000000
-822.368238 -1327.682380 8.000000
-822.567245 -1329.672455 8.000000
-822.766253 -1331.662529 8.000000
-822.965260 -1333.652603 8.000000
-823.164268 -1335.642678 8.000000
-823.363275 -1337.632752 8.000000
-823.562283 -1339.622826 8.000000
-823.761290 -1341.612901 8.000000
